ply
format ascii 1.0
element vertex 870
property double x
property double y
property double z
end_header
-0.658215641975403 -0.254994153976440 0.498269826173782
-0.713066995143890 -0.276243686676025 0.584775090217590
-0.767918288707733 -0.297493159770966 0.678200602531433
-0.822769641876221 -0.318742692470551 0.778546750545502
-0.877620875835419 -0.339992195367813 0.885813057422638
-0.932472229003906 -0.361241728067398 1.000000000000000
0.850217044353485 0.526432275772095 1.000000000000000
0.800204277038574 0.495465666055679 0.885813176631927
0.750191509723663 0.464499056339264 0.778546750545502
0.700178742408752 0.433532476425171 0.678200721740723
0.650165975093842 0.402565866708755 0.584775090217590
0.600153148174286 0.371599227190018 0.498269826173782
0.550140440464020 0.340632647275925 0.418685138225555
0.500127613544464 0.309666037559509 0.346020728349686
0.450114935636520 0.278699457645416 0.280276834964752
0.400102108716965 0.247732818126678 0.221453264355659
0.350089341402054 0.216766223311424 0.169550150632858
0.300076574087143 0.185799613595009 0.124567456543446
0.250063806772232 0.154833018779755 0.086505182087421
0.200051054358482 0.123866409063339 0.055363316088915
0.150038287043571 0.092899806797504 0.031141864135861
0.100025527179241 0.061933204531670 0.013840829022229
0.050012763589621 0.030966602265835 0.003460207255557
-0.000000000000000 -0.000000000000000 0.000000000000000
-0.050012815743685 -0.030966633930802 0.003460214240476
-0.100025527179241 -0.061933204531670 0.013840829022229
-0.150038346648216 -0.092899836599827 0.031141886487603
-0.200051054358482 -0.123866409063339 0.055363316088915
-0.250063866376877 -0.154833048582077 0.086505211889744
-0.300076574087143 -0.185799613595009 0.124567456543446
-0.350089401006699 -0.216766253113747 0.169550195336342
-0.400102108716965 -0.247732818126678 0.221453264355659
-0.450114935636520 -0.278699457645416 0.280276834964752
-0.500127613544464 -0.309666037559509 0.346020728349686
-0.550140440464020 -0.340632647275925 0.418685138225555
-0.600153148174286 -0.371599227190018 0.498269826173782
-0.650165975093842 -0.402565866708755 0.584775090217590
-0.700178682804108 -0.433532446622849 0.678200602531433
-0.750191509723663 -0.464499056339264 0.778546750545502
-0.800204217433929 -0.495465636253357 0.885813057422638
-0.850217044353485 -0.526432275772095 1.000000000000000
0.739008724689484 0.673695802688599 1.000000000000000
0.695537626743317 0.634066641330719 0.885813176631927
0.652066528797150 0.594437479972839 0.778546750545502
0.608595430850983 0.554808318614960 0.678200721740723
0.565124332904816 0.515179157257080 0.584775090217590
0.521653175354004 0.475549936294556 0.498269826173782
0.478182137012482 0.435920834541321 0.418685138225555
0.434710979461670 0.396291613578796 0.346020728349686
0.391239941120148 0.356662511825562 0.280276834964752
0.347768783569336 0.317033290863037 0.221453264355659
0.304297685623169 0.277404129505157 0.169550150632858
0.260826587677002 0.237774968147278 0.124567456543446
0.217355489730835 0.198145806789398 0.086505182087421
0.173884391784668 0.158516645431519 0.055363316088915
0.130413293838501 0.118887484073639 0.031141864135861
0.086942195892334 0.079258322715759 0.013840829022229
0.043471097946167 0.039629161357880 0.003460207255557
-0.000000000000000 -0.000000000000000 0.000000000000000
-0.043471142649651 -0.039629202336073 0.003460214240476
-0.086942195892334 -0.079258322715759 0.013840829022229
-0.130413338541985 -0.118887528777122 0.031141886487603
-0.173884391784668 -0.158516645431519 0.055363316088915
-0.217355534434319 -0.198145851492882 0.086505211889744
-0.260826587677002 -0.237774968147278 0.124567456543446
-0.304297745227814 -0.277404189109802 0.169550195336342
-0.347768783569336 -0.317033290863037 0.221453264355659
-0.391239941120148 -0.356662511825562 0.280276834964752
-0.434710979461670 -0.396291613578796 0.346020728349686
-0.478182137012482 -0.435920834541321 0.418685138225555
-0.521653175354004 -0.475549936294556 0.498269826173782
-0.565124332904816 -0.515179157257080 0.584775090217590
-0.608595371246338 -0.554808259010315 0.678200602531433
-0.652066528797150 -0.594437479972839 0.778546750545502
-0.695537567138672 -0.634066581726074 0.885813057422638
-0.739008724689484 -0.673695802688599 1.000000000000000
0.602634310722351 0.798017442226410 1.000000000000000
0.567185223102570 0.751075267791748 0.885813176631927
0.531736135482788 0.704133033752441 0.778546750545502
0.496287077665329 0.657190859317780 0.678200721740723
0.460838019847870 0.610248625278473 0.584775090217590
0.425388902425766 0.563306391239166 0.498269826173782
0.389939874410629 0.516364216804504 0.418685138225555
0.354490756988525 0.469421982765198 0.346020728349686
0.319041699171066 0.422479838132858 0.280276834964752
0.283592611551285 0.375537604093552 0.221453264355659
0.248143523931503 0.328595399856567 0.169550150632858
0.212694451212883 0.281653195619583 0.124567456543446
0.177245378494263 0.234710991382599 0.086505182087421
0.141796305775642 0.187768802046776 0.055363316088915
0.106347225606441 0.140826597809792 0.031141864135861
0.070898152887821 0.093884401023388 0.013840829022229
0.035449076443911 0.046942200511694 0.003460207255557
-0.000000000000000 -0.000000000000000 0.000000000000000
-0.035449109971523 -0.046942248940468 0.003460214240476
-0.070898152887821 -0.093884401023388 0.013840829022229
-0.106347262859344 -0.140826642513275 0.031141886487603
-0.141796305775642 -0.187768802046776 0.055363316088915
-0.177245408296585 -0.234711050987244 0.086505211889744
-0.212694451212883 -0.281653195619583 0.124567456543446
-0.248143553733826 -0.328595459461212 0.169550195336342
-0.283592611551285 -0.375537604093552 0.221453264355659
-0.319041699171066 -0.422479838132858 0.280276834964752
-0.354490756988525 -0.469421982765198 0.346020728349686
-0.389939874410629 -0.516364216804504 0.418685138225555
-0.425388902425766 -0.563306391239166 0.498269826173782
-0.460838019847870 -0.610248625278473 0.584775090217590
-0.496287047863007 -0.657190799713135 0.678200602531433
-0.531736135482788 -0.704133033752441 0.778546750545502
-0.567185223102570 -0.751075208187103 0.885813057422638
-0.602634310722351 -0.798017442226410 1.000000000000000
0.445738375186920 0.895163297653198 1.000000000000000
0.419518470764160 0.842506647109985 0.885813176631927
0.393298566341400 0.789849996566772 0.778546750545502
0.367078661918640 0.737193286418915 0.678200721740723
0.340858757495880 0.684536635875702 0.584775090217590
0.314638823270798 0.631879925727844 0.498269826173782
0.288418948650360 0.579223334789276 0.418685138225555
0.262199014425278 0.526566624641418 0.346020728349686
0.235979154706001 0.473910003900528 0.280276834964752
0.209759220480919 0.421253293752670 0.221453264355659
0.183539316058159 0.368596643209457 0.169550150632858
0.157319411635399 0.315939962863922 0.124567456543446
0.131099507212639 0.263283312320709 0.086505182087421
0.104879610240459 0.210626646876335 0.055363316088915
0.078659705817699 0.157969981431961 0.031141864135861
0.052439805120230 0.105313323438168 0.013840829022229
0.026219902560115 0.052656661719084 0.003460207255557
-0.000000000000000 -0.000000000000000 0.000000000000000
-0.026219928637147 -0.052656713873148 0.003460214240476
-0.052439805120230 -0.105313323438168 0.013840829022229
-0.078659735620022 -0.157970041036606 0.031141886487603
-0.104879610240459 -0.210626646876335 0.055363316088915
-0.131099537014961 -0.263283371925354 0.086505211889744
-0.157319411635399 -0.315939962863922 0.124567456543446
-0.183539345860481 -0.368596673011780 0.169550195336342
-0.209759220480919 -0.421253293752670 0.221453264355659
-0.235979154706001 -0.473910003900528 0.280276834964752
-0.262199014425278 -0.526566624641418 0.346020728349686
-0.288418948650360 -0.579223334789276 0.418685138225555
-0.314638823270798 -0.631879925727844 0.498269826173782
-0.340858757495880 -0.684536635875702 0.584775090217590
-0.367078632116318 -0.737193286418915 0.678200602531433
-0.393298566341400 -0.789849996566772 0.778546750545502
-0.419518440961838 -0.842506587505341 0.885813057422638
-0.445738375186920 -0.895163297653198 1.000000000000000
0.273662894964218 0.961825668811798 1.000000000000000
0.257565081119537 0.905247688293457 0.885813176631927
0.241467267274857 0.848669707775116 0.778546750545502
0.225369438529015 0.792091727256775 0.678200721740723
0.209271624684334 0.735513746738434 0.584775090217590
0.193173795938492 0.678935706615448 0.498269826173782
0.177075996994972 0.622357785701752 0.418685138225555
0.160978168249130 0.565779745578766 0.346020728349686
0.144880369305611 0.509201824665070 0.280276834964752
0.128782525658607 0.452623814344406 0.221453264355659
0.112684711813927 0.396045833826065 0.169550150632858
0.096586897969246 0.339467853307724 0.124567456543446
0.080489084124565 0.282889872789383 0.086505182087421
0.064391262829304 0.226311907172203 0.055363316088915
0.048293448984623 0.169733926653862 0.031141864135861
0.032195631414652 0.113155953586102 0.013840829022229
0.016097815707326 0.056577976793051 0.003460207255557
-0.000000000000000 -0.000000000000000 0.000000000000000
-0.016097832471132 -0.056578032672405 0.003460214240476
-0.032195631414652 -0.113155953586102 0.013840829022229
-0.048293463885784 -0.169733986258507 0.031141886487603
-0.064391262829304 -0.226311907172203 0.055363316088915
-0.080489099025726 -0.282889932394028 0.086505211889744
-0.096586897969246 -0.339467853307724 0.124567456543446
-0.112684734165668 -0.396045893430710 0.169550195336342
-0.128782525658607 -0.452623814344406 0.221453264355659
-0.144880369305611 -0.509201824665070 0.280276834964752
-0.160978168249130 -0.565779745578766 0.346020728349686
-0.177075996994972 -0.622357785701752 0.418685138225555
-0.193173795938492 -0.678935706615448 0.498269826173782
-0.209271624684334 -0.735513746738434 0.584775090217590
-0.225369423627853 -0.792091667652130 0.678200602531433
-0.241467267274857 -0.848669707775116 0.778546750545502
-0.257565051317215 -0.905247628688812 0.885813057422638
-0.273662894964218 -0.961825668811798 1.000000000000000
0.092268161475658 0.995734214782715 1.000000000000000
0.086840622127056 0.937161624431610 0.885813176631927
0.081413082778454 0.878589034080505 0.778546750545502
0.075985543429852 0.820016443729401 0.678200721740723
0.070558004081249 0.761443853378296 0.584775090217590
0.065130464732647 0.702871143817902 0.498269826173782
0.059702929109335 0.644298613071442 0.418685138225555
0.054275386035442 0.585725963115692 0.346020728349686
0.048847854137421 0.527153432369232 0.280276834964752
0.043420307338238 0.468580782413483 0.221453264355659
0.037992771714926 0.410008192062378 0.169550150632858
0.032565232366323 0.351435571908951 0.124567456543446
0.027137693017721 0.292862981557846 0.086505182087421
0.021710153669119 0.234290391206741 0.055363316088915
0.016282616183162 0.175717785954475 0.031141864135861
0.010855076834559 0.117145195603371 0.013840829022229
0.005427538417280 0.058572597801685 0.003460207255557
-0.000000000000000 -0.000000000000000 0.000000000000000
-0.005427544005215 -0.058572657406330 0.003460214240476
-0.010855076834559 -0.117145195603371 0.013840829022229
-0.016282621771097 -0.175717845559120 0.031141886487603
-0.021710153669119 -0.234290391206741 0.055363316088915
-0.027137698605657 -0.292863041162491 0.086505211889744
-0.032565232366323 -0.351435571908951 0.124567456543446
-0.037992775440216 -0.410008251667023 0.169550195336342
-0.043420307338238 -0.468580782413483 0.221453264355659
-0.048847854137421 -0.527153432369232 0.280276834964752
-0.054275386035442 -0.585725963115692 0.346020728349686
-0.059702929109335 -0.644298613071442 0.418685138225555
-0.065130464732647 -0.702871143817902 0.498269826173782
-0.070558004081249 -0.761443853378296 0.584775090217590
-0.075985543429852 -0.820016384124756 0.678200602531433
-0.081413082778454 -0.878589034080505 0.778546750545502
-0.086840614676476 -0.937161564826965 0.885813057422638
-0.092268161475658 -0.995734214782715 1.000000000000000
-0.092268660664558 0.995734155178070 1.000000000000000
-0.086841091513634 0.937161564826965 0.885813176631927
-0.081413522362709 0.878588974475861 0.778546750545502
-0.075985953211784 0.820016384124756 0.678200721740723
-0.070558391511440 0.761443793773651 0.584775090217590
-0.065130814909935 0.702871143817902 0.498269826173782
-0.059703253209591 0.644298613071442 0.418685138225555
-0.054275680333376 0.585725963115692 0.346020728349686
-0.048848118633032 0.527153432369232 0.280276834964752
-0.043420542031527 0.468580752611160 0.221453264355659
-0.037992976605892 0.410008162260056 0.169550150632858
-0.032565407454967 0.351435571908951 0.124567456543446
-0.027137840166688 0.292862981557846 0.086505182087421
-0.021710271015763 0.234290376305580 0.055363316088915
-0.016282703727484 0.175717785954475 0.031141864135861
-0.010855135507882 0.117145188152790 0.013840829022229
-0.005427567753941 0.058572594076395 0.003460207255557
0.000000000000000 -0.000000000000000 0.000000000000000
0.005427573341876 -0.058572653681040 0.003460214240476
0.010855135507882 -0.117145188152790 0.013840829022229
0.016282709315419 -0.175717845559120 0.031141886487603
0.021710271015763 -0.234290376305580 0.055363316088915
0.027137845754623 -0.292863041162491 0.086505211889744
0.032565407454967 -0.351435571908951 0.124567456543446
0.037992980331182 -0.410008221864700 0.169550195336342
0.043420542031527 -0.468580752611160 0.221453264355659
0.048848118633032 -0.527153432369232 0.280276834964752
0.054275680333376 -0.585725963115692 0.346020728349686
0.059703253209591 -0.644298613071442 0.418685138225555
0.065130814909935 -0.702871143817902 0.498269826173782
0.070558391511440 -0.761443793773651 0.584775090217590
0.075985953211784 -0.820016324520111 0.678200602531433
0.081413522362709 -0.878588974475861 0.778546750545502
0.086841084063053 -0.937161505222321 0.885813057422638
0.092268660664558 -0.995734155178070 1.000000000000000
-0.273663371801376 0.961825549602509 1.000000000000000
-0.257565528154373 0.905247569084167 0.885813176631927
-0.241467684507370 0.848669588565826 0.778546750545502
-0.225369840860367 0.792091667652130 0.678200721740723
-0.209271997213364 0.735513687133789 0.584775090217590
-0.193174138665199 0.678935647010803 0.498269826173782
-0.177076309919357 0.622357726097107 0.418685138225555
-0.160978451371193 0.565779685974121 0.346020728349686
-0.144880622625351 0.509201765060425 0.280276834964752
-0.128782749176025 0.452623754739761 0.221453264355659
-0.112684912979603 0.396045804023743 0.169550150632858
-0.096587069332600 0.339467823505402 0.124567456543446
-0.080489225685596 0.282889842987061 0.086505182087421
-0.064391374588013 0.226311877369881 0.055363316088915
-0.048293534666300 0.169733911752701 0.031141864135861
-0.032195687294006 0.113155938684940 0.013840829022229
-0.016097843647003 0.056577969342470 0.003460207255557
0.000000000000000 -0.000000000000000 0.000000000000000
0.016097860410810 -0.056578028947115 0.003460214240476
0.032195687294006 -0.113155938684940 0.013840829022229
0.048293549567461 -0.169733971357346 0.031141886487603
0.064391374588013 -0.226311877369881 0.055363316088915
0.080489240586758 -0.282889902591705 0.086505211889744
0.096587069332600 -0.339467823505402 0.124567456543446
0.112684927880764 -0.396045833826065 0.169550195336342
0.128782749176025 -0.452623754739761 0.221453264355659
0.144880622625351 -0.509201765060425 0.280276834964752
0.160978451371193 -0.565779685974121 0.346020728349686
0.177076309919357 -0.622357726097107 0.418685138225555
0.193174138665199 -0.678935647010803 0.498269826173782
0.209271997213364 -0.735513687133789 0.584775090217590
0.225369825959206 -0.792091608047485 0.678200602531433
0.241467684507370 -0.848669588565826 0.778546750545502
0.257565498352051 -0.905247509479523 0.885813057422638
0.273663371801376 -0.961825549602509 1.000000000000000
-0.445738822221756 0.895163059234619 1.000000000000000
-0.419518887996674 0.842506408691406 0.885813176631927
-0.393298953771591 0.789849758148193 0.778546750545502
-0.367079049348831 0.737193107604980 0.678200721740723
-0.340859115123749 0.684536457061768 0.584775090217590
-0.314639151096344 0.631879746913910 0.498269826173782
-0.288419246673584 0.579223155975342 0.418685138225555
-0.262199282646179 0.526566445827484 0.346020728349686
-0.235979393124580 0.473909884691238 0.280276834964752
-0.209759429097176 0.421253174543381 0.221453264355659
-0.183539509773254 0.368596524000168 0.169550150632858
-0.157319575548172 0.315939873456955 0.124567456543446
-0.131099641323090 0.263283222913742 0.086505182087421
-0.104879714548588 0.210626587271690 0.055363316088915
-0.078659787774086 0.157969936728477 0.031141864135861
-0.052439857274294 0.105313293635845 0.013840829022229
-0.026219928637147 0.052656646817923 0.003460207255557
0.000000000000000 -0.000000000000000 0.000000000000000
0.026219956576824 -0.052656698971987 0.003460214240476
0.052439857274294 -0.105313293635845 0.013840829022229
0.078659817576408 -0.157969996333122 0.031141886487603
0.104879714548588 -0.210626587271690 0.055363316088915
0.131099671125412 -0.263283282518387 0.086505211889744
0.157319575548172 -0.315939873456955 0.124567456543446
0.183539524674416 -0.368596583604813 0.169550195336342
0.209759429097176 -0.421253174543381 0.221453264355659
0.235979393124580 -0.473909884691238 0.280276834964752
0.262199282646179 -0.526566445827484 0.346020728349686
0.288419246673584 -0.579223155975342 0.418685138225555
0.314639151096344 -0.631879746913910 0.498269826173782
0.340859115123749 -0.684536457061768 0.584775090217590
0.367079019546509 -0.737193048000336 0.678200602531433
0.393298953771591 -0.789849758148193 0.778546750545502
0.419518858194351 -0.842506349086761 0.885813057422638
0.445738822221756 -0.895163059234619 1.000000000000000
-0.602634727954865 0.798017144203186 1.000000000000000
-0.567185640335083 0.751074969768524 0.885813176631927
-0.531736552715302 0.704132795333862 0.778546750545502
-0.496287435293198 0.657190620899200 0.678200721740723
-0.460838317871094 0.610248386859894 0.584775090217590
-0.425389200448990 0.563306212425232 0.498269826173782
-0.389940142631531 0.516364037990570 0.418685138225555
-0.354490995407104 0.469421833753586 0.346020728349686
-0.319041937589645 0.422479689121246 0.280276834964752
-0.283592790365219 0.375537455081940 0.221453264355659
-0.248143702745438 0.328595280647278 0.169550150632858
-0.212694600224495 0.281653106212616 0.124567456543446
-0.177245497703552 0.234710916876793 0.086505182087421
-0.141796395182610 0.187768727540970 0.055363316088915
-0.106347300112247 0.140826553106308 0.031141864135861
-0.070898197591305 0.093884363770485 0.013840829022229
-0.035449098795652 0.046942181885242 0.003460207255557
0.000000000000000 -0.000000000000000 0.000000000000000
0.035449136048555 -0.046942230314016 0.003460214240476
0.070898197591305 -0.093884363770485 0.013840829022229
0.106347337365150 -0.140826597809792 0.031141886487603
0.141796395182610 -0.187768727540970 0.055363316088915
0.177245527505875 -0.234710961580276 0.086505211889744
0.212694600224495 -0.281653106212616 0.124567456543446
0.248143732547760 -0.328595310449600 0.169550195336342
0.283592790365219 -0.375537455081940 0.221453264355659
0.319041937589645 -0.422479689121246 0.280276834964752
0.354490995407104 -0.469421833753586 0.346020728349686
0.389940142631531 -0.516364037990570 0.418685138225555
0.425389200448990 -0.563306212425232 0.498269826173782
0.460838317871094 -0.610248386859894 0.584775090217590
0.496287405490875 -0.657190561294556 0.678200602531433
0.531736552715302 -0.704132795333862 0.778546750545502
0.567185580730438 -0.751074910163879 0.885813057422638
0.602634727954865 -0.798017144203186 1.000000000000000
-0.739009082317352 0.673695445060730 1.000000000000000
-0.695537984371185 0.634066283702850 0.885813176631927
-0.652066826820374 0.594437181949615 0.778546750545502
-0.608595728874207 0.554808020591736 0.678200721740723
-0.565124630928040 0.515178859233856 0.584775090217590
-0.521653413772583 0.475549697875977 0.498269826173782
-0.478182375431061 0.435920596122742 0.418685138225555
-0.434711188077927 0.396291404962540 0.346020728349686
-0.391240119934082 0.356662303209305 0.280276834964752
-0.347768962383270 0.317033141851425 0.221453264355659
-0.304297834634781 0.277403980493546 0.169550150632858
-0.260826706886292 0.237774848937988 0.124567456543446
-0.217355594038963 0.198145702481270 0.086505182087421
-0.173884481191635 0.158516570925713 0.055363316088915
-0.130413353443146 0.118887424468994 0.031141864135861
-0.086942240595818 0.079258285462856 0.013840829022229
-0.043471120297909 0.039629142731428 0.003460207255557
0.000000000000000 -0.000000000000000 0.000000000000000
0.043471165001392 -0.039629179984331 0.003460214240476
0.086942240595818 -0.079258285462856 0.013840829022229
0.130413398146629 -0.118887461721897 0.031141886487603
0.173884481191635 -0.158516570925713 0.055363316088915
0.217355638742447 -0.198145747184753 0.086505211889744
0.260826706886292 -0.237774848937988 0.124567456543446
0.304297894239426 -0.277404040098190 0.169550195336342
0.347768962383270 -0.317033141851425 0.221453264355659
0.391240119934082 -0.356662303209305 0.280276834964752
0.434711188077927 -0.396291404962540 0.346020728349686
0.478182375431061 -0.435920596122742 0.418685138225555
0.521653413772583 -0.475549697875977 0.498269826173782
0.565124630928040 -0.515178859233856 0.584775090217590
0.608595669269562 -0.554807960987091 0.678200602531433
0.652066826820374 -0.594437181949615 0.778546750545502
0.695537924766541 -0.634066283702850 0.885813057422638
0.739009082317352 -0.673695445060730 1.000000000000000
-0.850217044353485 0.526432275772095 1.000000000000000
-0.800204277038574 0.495465666055679 0.885813176631927
-0.750191509723663 0.464499056339264 0.778546750545502
-0.700178742408752 0.433532476425171 0.678200721740723
-0.650165975093842 0.402565866708755 0.584775090217590
-0.600153148174286 0.371599227190018 0.498269826173782
-0.550140440464020 0.340632647275925 0.418685138225555
-0.500127613544464 0.309666037559509 0.346020728349686
-0.450114935636520 0.278699457645416 0.280276834964752
-0.400102108716965 0.247732818126678 0.221453264355659
-0.350089341402054 0.216766223311424 0.169550150632858
-0.300076574087143 0.185799613595009 0.124567456543446
-0.250063806772232 0.154833018779755 0.086505182087421
-0.200051054358482 0.123866409063339 0.055363316088915
-0.150038287043571 0.092899806797504 0.031141864135861
-0.100025527179241 0.061933204531670 0.013840829022229
-0.050012763589621 0.030966602265835 0.003460207255557
0.000000000000000 -0.000000000000000 0.000000000000000
0.050012815743685 -0.030966633930802 0.003460214240476
0.100025527179241 -0.061933204531670 0.013840829022229
0.150038346648216 -0.092899836599827 0.031141886487603
0.200051054358482 -0.123866409063339 0.055363316088915
0.250063866376877 -0.154833048582077 0.086505211889744
0.300076574087143 -0.185799613595009 0.124567456543446
0.350089401006699 -0.216766253113747 0.169550195336342
0.400102108716965 -0.247732818126678 0.221453264355659
0.450114935636520 -0.278699457645416 0.280276834964752
0.500127613544464 -0.309666037559509 0.346020728349686
0.550140440464020 -0.340632647275925 0.418685138225555
0.600153148174286 -0.371599227190018 0.498269826173782
0.650165975093842 -0.402565866708755 0.584775090217590
0.700178682804108 -0.433532446622849 0.678200602531433
0.750191509723663 -0.464499056339264 0.778546750545502
0.800204217433929 -0.495465636253357 0.885813057422638
0.850217044353485 -0.526432275772095 1.000000000000000
-0.932472229003906 0.361241698265076 1.000000000000000
-0.877620935440063 0.339992195367813 0.885813176631927
-0.822769641876221 0.318742662668228 0.778546750545502
-0.767918288707733 0.297493159770966 0.678200721740723
-0.713066995143890 0.276243656873703 0.584775090217590
-0.658215641975403 0.254994124174118 0.498269826173782
-0.603364408016205 0.233744636178017 0.418685138225555
-0.548513054847717 0.212495103478432 0.346020728349686
-0.493661791086197 0.191245615482330 0.280276834964752
-0.438810437917709 0.169996082782745 0.221453264355659
-0.383959144353867 0.148746579885483 0.169550150632858
-0.329107820987701 0.127497062087059 0.124567456543446
-0.274256527423859 0.106247551739216 0.086505182087421
-0.219405218958855 0.084998041391373 0.055363316088915
-0.164553910493851 0.063748531043530 0.031141864135861
-0.109702609479427 0.042499020695686 0.013840829022229
-0.054851304739714 0.021249510347843 0.003460207255557
0.000000000000000 -0.000000000000000 0.000000000000000
0.054851360619068 -0.021249532699585 0.003460214240476
0.109702609479427 -0.042499020695686 0.013840829022229
0.164553970098495 -0.063748553395271 0.031141886487603
0.219405218958855 -0.084998041391373 0.055363316088915
0.274256587028503 -0.106247574090958 0.086505211889744
0.329107820987701 -0.127497062087059 0.124567456543446
0.383959174156189 -0.148746594786644 0.169550195336342
0.438810437917709 -0.169996082782745 0.221453264355659
0.493661791086197 -0.191245615482330 0.280276834964752
0.548513054847717 -0.212495103478432 0.346020728349686
0.603364408016205 -0.233744636178017 0.418685138225555
0.658215641975403 -0.254994124174118 0.498269826173782
0.713066995143890 -0.276243656873703 0.584775090217590
0.767918288707733 -0.297493159770966 0.678200602531433
0.822769641876221 -0.318742662668228 0.778546750545502
0.877620875835419 -0.339992165565491 0.885813057422638
0.932472229003906 -0.361241698265076 1.000000000000000
-0.982973098754883 0.183749452233315 1.000000000000000
-0.925151169300079 0.172940656542778 0.885813176631927
-0.867329239845276 0.162131875753403 0.778546750545502
-0.809507250785828 0.151323080062866 0.678200721740723
-0.751685321331024 0.140514284372330 0.584775090217590
-0.693863332271576 0.129705488681793 0.498269826173782
-0.636041462421417 0.118896707892418 0.418685138225555
-0.578219413757324 0.108087904751301 0.346020728349686
-0.520397543907166 0.097279123961926 0.280276834964752
-0.462575554847717 0.086470328271389 0.221453264355659
-0.404753595590591 0.075661532580853 0.169550150632858
-0.346931666135788 0.064852744340897 0.124567456543446
-0.289109706878662 0.054043952375650 0.086505182087421
-0.231287777423859 0.043235164135695 0.055363316088915
-0.173465833067894 0.032426372170448 0.031141864135861
-0.115643888711929 0.021617582067847 0.013840829022229
-0.057821944355965 0.010808791033924 0.003460207255557
0.000000000000000 -0.000000000000000 0.000000000000000
0.057822003960609 -0.010808801278472 0.003460214240476
0.115643888711929 -0.021617582067847 0.013840829022229
0.173465892672539 -0.032426383346319 0.031141886487603
0.231287777423859 -0.043235164135695 0.055363316088915
0.289109766483307 -0.054043963551521 0.086505211889744
0.346931666135788 -0.064852744340897 0.124567456543446
0.404753655195236 -0.075661547482014 0.169550195336342
0.462575554847717 -0.086470328271389 0.221453264355659
0.520397543907166 -0.097279123961926 0.280276834964752
0.578219413757324 -0.108087904751301 0.346020728349686
0.636041462421417 -0.118896707892418 0.418685138225555
0.693863332271576 -0.129705488681793 0.498269826173782
0.751685321331024 -0.140514284372330 0.584775090217590
0.809507191181183 -0.151323065161705 0.678200602531433
0.867329239845276 -0.162131875753403 0.778546750545502
0.925151109695435 -0.172940656542778 0.885813057422638
0.982973098754883 -0.183749452233315 1.000000000000000
-1.000000000000000 -0.000000174845553 1.000000000000000
-0.941176474094391 -0.000000164560518 0.885813176631927
-0.882352948188782 -0.000000154275483 0.778546750545502
-0.823529422283173 -0.000000143990462 0.678200721740723
-0.764705896377563 -0.000000133705427 0.584775090217590
-0.705882310867310 -0.000000123420378 0.498269826173782
-0.647058844566345 -0.000000113135364 0.418685138225555
-0.588235259056091 -0.000000102850322 0.346020728349686
-0.529411792755127 -0.000000092565301 0.280276834964752
-0.470588207244873 -0.000000082280252 0.221453264355659
-0.411764681339264 -0.000000071995224 0.169550150632858
-0.352941155433655 -0.000000061710189 0.124567456543446
-0.294117629528046 -0.000000051425161 0.086505182087421
-0.235294103622437 -0.000000041140126 0.055363316088915
-0.176470577716827 -0.000000030855094 0.031141864135861
-0.117647051811218 -0.000000020570063 0.013840829022229
-0.058823525905609 -0.000000010285031 0.003460207255557
0.000000000000000 0.000000000000000 0.000000000000000
0.058823585510254 0.000000010285042 0.003460214240476
0.117647051811218 0.000000020570063 0.013840829022229
0.176470637321472 0.000000030855105 0.031141886487603
0.235294103622437 0.000000041140126 0.055363316088915
0.294117689132690 0.000000051425172 0.086505211889744
0.352941155433655 0.000000061710189 0.124567456543446
0.411764740943909 0.000000071995231 0.169550195336342
0.470588207244873 0.000000082280252 0.221453264355659
0.529411792755127 0.000000092565301 0.280276834964752
0.588235259056091 0.000000102850322 0.346020728349686
0.647058844566345 0.000000113135364 0.418685138225555
0.705882310867310 0.000000123420378 0.498269826173782
0.764705896377563 0.000000133705427 0.584775090217590
0.823529362678528 0.000000143990448 0.678200602531433
0.882352948188782 0.000000154275483 0.778546750545502
0.941176414489746 0.000000164560504 0.885813057422638
1.000000000000000 0.000000174845553 1.000000000000000
-0.995734155178070 -0.092268362641335 1.000000000000000
-0.937161564826965 -0.086840815842152 0.885813176631927
-0.878588974475861 -0.081413261592388 0.778546750545502
-0.820016384124756 -0.075985714793205 0.678200721740723
-0.761443793773651 -0.070558160543442 0.584775090217590
-0.702871143817902 -0.065130606293678 0.498269826173782
-0.673584878444672 -0.062416832894087 0.457612454891205
-0.644298613071442 -0.059703059494495 0.418685138225555
-0.615012288093567 -0.056989282369614 0.381487876176834
-0.585725963115692 -0.054275505244732 0.346020728349686
-0.556439697742462 -0.051561731845140 0.312283724546432
-0.527153432369232 -0.048847958445549 0.280276834964752
-0.497867077589035 -0.046134181320667 0.250000000000000
-0.468580752611160 -0.043420404195786 0.221453264355659
-0.439294457435608 -0.040706627070904 0.194636657834053
-0.380721867084503 -0.035279076546431 0.146193757653236
-0.322149276733398 -0.029851527884603 0.104671269655228
-0.263576686382294 -0.024423977360129 0.070069193840027
-0.205004081130028 -0.018996426835656 0.042387537658215
-0.146431490778923 -0.013568876311183 0.021626295521855
-0.087858892977238 -0.008141325786710 0.007785466033965
-0.029286297038198 -0.002713775262237 0.000865051813889
0.029286326840520 0.002713778056204 0.000865053560119
0.087858922779560 0.008141328580678 0.007785471621901
0.146431520581245 0.013568879105151 0.021626302972436
0.205004110932350 0.018996428698301 0.042387548834085
0.263576716184616 0.024423979222775 0.070069208741188
0.322149306535721 0.029851529747248 0.104671284556389
0.380721896886826 0.035279080271721 0.146193772554398
0.439294487237930 0.040706630796194 0.194636687636375
0.468580752611160 0.043420404195786 0.221453264355659
0.497867077589035 0.046134181320667 0.250000000000000
0.527153432369232 0.048847958445549 0.280276834964752
0.556439697742462 0.051561731845140 0.312283724546432
0.585725963115692 0.054275505244732 0.346020728349686
0.615012288093567 0.056989282369614 0.381487876176834
0.644298613071442 0.059703059494495 0.418685138225555
0.673584878444672 0.062416832894087 0.457612454891205
0.702871143817902 0.065130606293678 0.498269826173782
0.761443793773651 0.070558160543442 0.584775090217590
0.820016324520111 0.075985707342625 0.678200602531433
0.878588974475861 0.081413261592388 0.778546750545502
0.937161505222321 0.086840808391571 0.885813057422638
0.995734155178070 0.092268362641335 1.000000000000000
-0.961825668811798 -0.273662984371185 1.000000000000000
-0.905247688293457 -0.257565170526505 0.885813176631927
-0.848669707775116 -0.241467341780663 0.778546750545502
-0.792091727256775 -0.225369513034821 0.678200721740723
-0.735513746738434 -0.209271699190140 0.584775090217590
-0.678935706615448 -0.193173855543137 0.498269826173782
-0.650646746158600 -0.185124963521957 0.457612454891205
-0.622357785701752 -0.177076056599617 0.418685138225555
-0.594068765640259 -0.169027134776115 0.381487876176834
-0.565779745578766 -0.160978212952614 0.346020728349686
-0.537490785121918 -0.152929320931435 0.312283724546432
-0.509201824665070 -0.144880414009094 0.280276834964752
-0.480912834405899 -0.136831492185593 0.250000000000000
-0.452623814344406 -0.128782570362091 0.221453264355659
-0.424334824085236 -0.120733663439751 0.194636657834053
-0.367756843566895 -0.104635842144489 0.146193757653236
-0.311178863048553 -0.088538020849228 0.104671269655228
-0.254600882530212 -0.072440199553967 0.070069193840027
-0.198022916913033 -0.056342374533415 0.042387537658215
-0.141444936394691 -0.040244553238153 0.021626295521855
-0.084866963326931 -0.024146731942892 0.007785466033965
-0.028288988396525 -0.008048910647631 0.000865051813889
0.028289016336203 0.008048919029534 0.000865053560119
0.084866993129253 0.024146741256118 0.007785471621901
0.141444966197014 0.040244560688734 0.021626302972436
0.198022946715355 0.056342385709286 0.042387548834085
0.254600912332535 0.072440207004547 0.070069208741188
0.311178892850876 0.088538028299809 0.104671284556389
0.367756873369217 0.104635849595070 0.146193772554398
0.424334853887558 0.120733670890331 0.194636687636375
0.452623814344406 0.128782570362091 0.221453264355659
0.480912834405899 0.136831492185593 0.250000000000000
0.509201824665070 0.144880414009094 0.280276834964752
0.537490785121918 0.152929320931435 0.312283724546432
0.565779745578766 0.160978212952614 0.346020728349686
0.594068765640259 0.169027134776115 0.381487876176834
0.622357785701752 0.177076056599617 0.418685138225555
0.650646746158600 0.185124963521957 0.457612454891205
0.678935706615448 0.193173855543137 0.498269826173782
0.735513746738434 0.209271699190140 0.584775090217590
0.792091667652130 0.225369498133659 0.678200602531433
0.848669707775116 0.241467341780663 0.778546750545502
0.905247628688812 0.257565140724182 0.885813057422638
0.961825668811798 0.273662984371185 1.000000000000000
-0.895163297653198 -0.445738375186920 1.000000000000000
-0.842506647109985 -0.419518470764160 0.885813176631927
-0.789849996566772 -0.393298566341400 0.778546750545502
-0.737193286418915 -0.367078661918640 0.678200721740723
-0.684536635875702 -0.340858757495880 0.584775090217590
-0.631879925727844 -0.314638823270798 0.498269826173782
-0.605551660060883 -0.301528900861740 0.457612454891205
-0.579223334789276 -0.288418948650360 0.418685138225555
-0.552894949913025 -0.275308996438980 0.381487876176834
-0.526566624641418 -0.262199014425278 0.346020728349686
-0.500238299369812 -0.249089092016220 0.312283724546432
-0.473910003900528 -0.235979154706001 0.280276834964752
-0.447581648826599 -0.222869187593460 0.250000000000000
-0.421253293752670 -0.209759220480919 0.221453264355659
-0.394924968481064 -0.196649268269539 0.194636657834053
-0.342268288135529 -0.170429363846779 0.146193757653236
-0.289611637592316 -0.144209459424019 0.104671269655228
-0.236954972147942 -0.117989562451839 0.070069193840027
-0.184298321604729 -0.091769658029079 0.042387537658215
-0.131641656160355 -0.065549753606319 0.021626295521855
-0.078984990715981 -0.039329852908850 0.007785466033965
-0.026328330859542 -0.013109951280057 0.000865051813889
0.026328356936574 0.013109964318573 0.000865053560119
0.078985020518303 0.039329867810011 0.007785471621901
0.131641685962677 0.065549768507481 0.021626302972436
0.184298336505890 0.091769672930241 0.042387548834085
0.236955001950264 0.117989577353001 0.070069208741188
0.289611667394638 0.144209474325180 0.104671284556389
0.342268317937851 0.170429378747940 0.146193772554398
0.394924998283386 0.196649283170700 0.194636687636375
0.421253293752670 0.209759220480919 0.221453264355659
0.447581648826599 0.222869187593460 0.250000000000000
0.473910003900528 0.235979154706001 0.280276834964752
0.500238299369812 0.249089092016220 0.312283724546432
0.526566624641418 0.262199014425278 0.346020728349686
0.552894949913025 0.275308996438980 0.381487876176834
0.579223334789276 0.288418948650360 0.418685138225555
0.605551660060883 0.301528900861740 0.457612454891205
0.631879925727844 0.314638823270798 0.498269826173782
0.684536635875702 0.340858757495880 0.584775090217590
0.737193286418915 0.367078632116318 0.678200602531433
0.789849996566772 0.393298566341400 0.778546750545502
0.842506587505341 0.419518440961838 0.885813057422638
0.895163297653198 0.445738375186920 1.000000000000000
-0.798017203807831 -0.602634668350220 1.000000000000000
-0.751075029373169 -0.567185580730438 0.885813176631927
-0.704132854938507 -0.531736493110657 0.778546750545502
-0.657190620899200 -0.496287375688553 0.678200721740723
-0.610248446464539 -0.460838288068771 0.584775090217590
-0.563306212425232 -0.425389140844345 0.498269826173782
-0.539835155010223 -0.407664626836777 0.457612454891205
-0.516364097595215 -0.389940083026886 0.418685138225555
-0.492892980575562 -0.372215539216995 0.381487876176834
-0.469421863555908 -0.354490965604782 0.346020728349686
-0.445950776338577 -0.336766421794891 0.312283724546432
-0.422479718923569 -0.319041907787323 0.280276834964752
-0.399008601903915 -0.301317334175110 0.250000000000000
-0.375537484884262 -0.283592760562897 0.221453264355659
-0.352066397666931 -0.265868216753006 0.194636657834053
-0.305124193429947 -0.230419129133224 0.146193757653236
-0.258182018995285 -0.194970026612282 0.104671269655228
-0.211239829659462 -0.159520938992500 0.070069193840027
-0.164297655224800 -0.124071836471558 0.042387537658215
-0.117355465888977 -0.088622741401196 0.021626295521855
-0.070413276553154 -0.053173642605543 0.007785466033965
-0.023471092805266 -0.017724547535181 0.000865051813889
0.023471117019653 0.017724566161633 0.000865053560119
0.070413298904896 0.053173661231995 0.007785471621901
0.117355488240719 0.088622756302357 0.021626302972436
0.164297670125961 0.124071851372719 0.042387548834085
0.211239859461784 0.159520953893661 0.070069208741188
0.258182048797607 0.194970041513443 0.104671284556389
0.305124223232269 0.230419144034386 0.146193772554398
0.352066427469254 0.265868246555328 0.194636687636375
0.375537484884262 0.283592760562897 0.221453264355659
0.399008601903915 0.301317334175110 0.250000000000000
0.422479718923569 0.319041907787323 0.280276834964752
0.445950776338577 0.336766421794891 0.312283724546432
0.469421863555908 0.354490965604782 0.346020728349686
0.492892980575562 0.372215539216995 0.381487876176834
0.516364097595215 0.389940083026886 0.418685138225555
0.539835155010223 0.407664626836777 0.457612454891205
0.563306212425232 0.425389140844345 0.498269826173782
0.610248446464539 0.460838288068771 0.584775090217590
0.657190620899200 0.496287345886230 0.678200602531433
0.704132854938507 0.531736493110657 0.778546750545502
0.751074969768524 0.567185521125793 0.885813057422638
0.798017203807831 0.602634668350220 1.000000000000000
-0.673695623874664 -0.739008903503418 1.000000000000000
-0.634066462516785 -0.695537805557251 0.885813176631927
-0.594437301158905 -0.652066707611084 0.778546750545502
-0.554808139801025 -0.608595550060272 0.678200721740723
-0.515179038047791 -0.565124452114105 0.584775090217590
-0.475549817085266 -0.521653294563293 0.498269826173782
-0.455735266208649 -0.499917775392532 0.457612454891205
-0.435920715332031 -0.478182256221771 0.418685138225555
-0.416106104850769 -0.456446677446365 0.381487876176834
-0.396291524171829 -0.434711098670959 0.346020728349686
-0.376476973295212 -0.412975549697876 0.312283724546432
-0.356662422418594 -0.391240030527115 0.280276834964752
-0.336847811937332 -0.369504451751709 0.250000000000000
-0.317033201456070 -0.347768872976303 0.221453264355659
-0.297218650579453 -0.326033324003220 0.194636657834053
-0.257589489221573 -0.282562196254730 0.146193757653236
-0.217960342764854 -0.239091098308563 0.104671269655228
-0.178331181406975 -0.195619985461235 0.070069193840027
-0.138702034950256 -0.152148887515068 0.042387537658215
-0.099072881042957 -0.108677774667740 0.021626295521855
-0.059443727135658 -0.065206661820412 0.007785466033965
-0.019814575091004 -0.021735554561019 0.000865051813889
0.019814595580101 0.021735576912761 0.000865053560119
0.059443749487400 0.065206684172153 0.007785471621901
0.099072903394699 0.108677797019482 0.021626302972436
0.138702049851418 0.152148902416229 0.042387548834085
0.178331211209297 0.195620015263557 0.070069208741188
0.217960357666016 0.239091128110886 0.104671284556389
0.257589519023895 0.282562226057053 0.146193772554398
0.297218650579453 0.326033353805542 0.194636687636375
0.317033201456070 0.347768872976303 0.221453264355659
0.336847811937332 0.369504451751709 0.250000000000000
0.356662422418594 0.391240030527115 0.280276834964752
0.376476973295212 0.412975549697876 0.312283724546432
0.396291524171829 0.434711098670959 0.346020728349686
0.416106104850769 0.456446677446365 0.381487876176834
0.435920715332031 0.478182256221771 0.418685138225555
0.455735266208649 0.499917775392532 0.457612454891205
0.475549817085266 0.521653294563293 0.498269826173782
0.515179038047791 0.565124452114105 0.584775090217590
0.554808139801025 0.608595550060272 0.678200602531433
0.594437301158905 0.652066707611084 0.778546750545502
0.634066402912140 0.695537745952606 0.885813057422638
0.673695623874664 0.739008903503418 1.000000000000000
-0.526432096958160 -0.850217163562775 1.000000000000000
-0.495465517044067 -0.800204396247864 0.885813176631927
-0.464498907327652 -0.750191628932953 0.778546750545502
-0.433532327413559 -0.700178861618042 0.678200721740723
-0.402565717697144 -0.650166094303131 0.584775090217590
-0.371599107980728 -0.600153267383575 0.498269826173782
-0.356115818023682 -0.575146913528442 0.457612454891205
-0.340632557868958 -0.550140559673309 0.418685138225555
-0.325149238109589 -0.525134146213531 0.381487876176834
-0.309665918350220 -0.500127732753754 0.346020728349686
-0.294182628393173 -0.475121349096298 0.312283724546432
-0.278699368238449 -0.450114995241165 0.280276834964752
-0.263216048479080 -0.425108581781387 0.250000000000000
-0.247732743620872 -0.400102168321609 0.221453264355659
-0.232249438762665 -0.375095784664154 0.194636657834053
-0.201282843947411 -0.325083017349243 0.146193757653236
-0.170316249132156 -0.275070250034332 0.104671269655228
-0.139349669218063 -0.225057467818260 0.070069193840027
-0.108383074402809 -0.175044700503349 0.042387537658215
-0.077416479587555 -0.125031933188438 0.021626295521855
-0.046449888497591 -0.075019158422947 0.007785466033965
-0.015483296476305 -0.025006385520101 0.000865051813889
0.015483311377466 0.025006411597133 0.000865053560119
0.046449903398752 0.075019180774689 0.007785471621901
0.077416494488716 0.125031948089600 0.021626302972436
0.108383089303970 0.175044730305672 0.042387548834085
0.139349684119225 0.225057497620583 0.070069208741188
0.170316278934479 0.275070279836655 0.104671284556389
0.201282858848572 0.325083047151566 0.146193772554398
0.232249453663826 0.375095814466476 0.194636687636375
0.247732743620872 0.400102168321609 0.221453264355659
0.263216048479080 0.425108581781387 0.250000000000000
0.278699368238449 0.450114995241165 0.280276834964752
0.294182628393173 0.475121349096298 0.312283724546432
0.309665918350220 0.500127732753754 0.346020728349686
0.325149238109589 0.525134146213531 0.381487876176834
0.340632557868958 0.550140559673309 0.418685138225555
0.356115818023682 0.575146913528442 0.457612454891205
0.371599107980728 0.600153267383575 0.498269826173782
0.402565717697144 0.650166094303131 0.584775090217590
0.433532297611237 0.700178802013397 0.678200602531433
0.464498907327652 0.750191628932953 0.778546750545502
0.495465487241745 0.800204336643219 0.885813057422638
0.526432096958160 0.850217163562775 1.000000000000000
-0.361241608858109 -0.932472229003906 1.000000000000000
-0.339992105960846 -0.877620935440063 0.885813176631927
-0.318742603063583 -0.822769641876221 0.778546750545502
-0.297493100166321 -0.767918288707733 0.678200721740723
-0.276243597269058 -0.713066995143890 0.584775090217590
-0.254994064569473 -0.658215641975403 0.498269826173782
-0.244369313120842 -0.630790054798126 0.457612454891205
-0.233744576573372 -0.603364408016205 0.418685138225555
-0.223119810223579 -0.575938701629639 0.381487876176834
-0.212495058774948 -0.548513054847717 0.346020728349686
-0.201870307326317 -0.521087408065796 0.312283724546432
-0.191245570778847 -0.493661791086197 0.280276834964752
-0.180620804429054 -0.466236114501953 0.250000000000000
-0.169996038079262 -0.438810437917709 0.221453264355659
-0.159371286630630 -0.411384791135788 0.194636657834053
-0.138121783733368 -0.356533467769623 0.146193757653236
-0.116872280836105 -0.301682174205780 0.104671269655228
-0.095622770488262 -0.246830865740776 0.070069193840027
-0.074373267591000 -0.191979572176933 0.042387537658215
-0.053123764693737 -0.137128263711929 0.021626295521855
-0.031874258071184 -0.082276955246925 0.007785466033965
-0.010624752379954 -0.027425652369857 0.000865051813889
0.010624763555825 0.027425680309534 0.000865053560119
0.031874269247055 0.082276985049248 0.007785471621901
0.053123772144318 0.137128293514252 0.021626302972436
0.074373275041580 0.191979587078094 0.042387548834085
0.095622785389423 0.246830895543098 0.070069208741188
0.116872288286686 0.301682204008102 0.104671284556389
0.138121798634529 0.356533497571945 0.146193772554398
0.159371301531792 0.411384820938110 0.194636687636375
0.169996038079262 0.438810437917709 0.221453264355659
0.180620804429054 0.466236114501953 0.250000000000000
0.191245570778847 0.493661791086197 0.280276834964752
0.201870307326317 0.521087408065796 0.312283724546432
0.212495058774948 0.548513054847717 0.346020728349686
0.223119810223579 0.575938701629639 0.381487876176834
0.233744576573372 0.603364408016205 0.418685138225555
0.244369313120842 0.630790054798126 0.457612454891205
0.254994064569473 0.658215641975403 0.498269826173782
0.276243597269058 0.713066995143890 0.584775090217590
0.297493070363998 0.767918288707733 0.678200602531433
0.318742603063583 0.822769641876221 0.778546750545502
0.339992076158524 0.877620875835419 0.885813057422638
0.361241608858109 0.932472229003906 1.000000000000000
-0.183749452233315 -0.982973098754883 1.000000000000000
-0.172940656542778 -0.925151169300079 0.885813176631927
-0.162131875753403 -0.867329239845276 0.778546750545502
-0.151323080062866 -0.809507250785828 0.678200721740723
-0.140514284372330 -0.751685321331024 0.584775090217590
-0.129705488681793 -0.693863332271576 0.498269826173782
-0.124301098287106 -0.664952397346497 0.457612454891205
-0.118896707892418 -0.636041462421417 0.418685138225555
-0.113492310047150 -0.607130408287048 0.381487876176834
-0.108087904751301 -0.578219413757324 0.346020728349686
-0.102683514356613 -0.549308478832245 0.312283724546432
-0.097279123961926 -0.520397543907166 0.280276834964752
-0.091874726116657 -0.491486549377441 0.250000000000000
-0.086470328271389 -0.462575554847717 0.221453264355659
-0.081065930426121 -0.433664590120316 0.194636657834053
-0.070257142186165 -0.375842630863190 0.146193757653236
-0.059448350220919 -0.318020701408386 0.104671269655228
-0.048639558255672 -0.260198742151260 0.070069193840027
-0.037830766290426 -0.202376797795296 0.042387537658215
-0.027021976187825 -0.144554853439331 0.021626295521855
-0.016213186085224 -0.086732916533947 0.007785466033965
-0.005404395516962 -0.028910972177982 0.000865051813889
0.005404400639236 0.028911001980305 0.000865053560119
0.016213191673160 0.086732946336269 0.007785471621901
0.027021981775761 0.144554883241653 0.021626302972436
0.037830773741007 0.202376827597618 0.042387548834085
0.048639561980963 0.260198771953583 0.070069208741188
0.059448353946209 0.318020731210709 0.104671284556389
0.070257142186165 0.375842660665512 0.146193772554398
0.081065937876701 0.433664619922638 0.194636687636375
0.086470328271389 0.462575554847717 0.221453264355659
